921 891 881 861 841 831 811 801 781 771 761 741 711 701 691 681 681 661 661 651 641 631 631 611 601 591 571 561 541 521 501 490 501 480 450 430 400 380 350 330 310 280 240 220 210 200 180 170 160 160 150 140 70 80 90 100 110 110 120 130 140 140 170 170 180 180 190 200 220 240 270 300 170 200 230 260 290 320 
841 811 791 771 751 741 721 701 691 671 661 641 611 601 591 581 571 561 551 541 531 521 521 501 490 470 460 440 420 410 390 370 380 360 330 310 280 260 230 220 190 170 130 110 100 90 80 70 60 60 50 50 -10 0 10 20 30 40 50 60 60 70 110 110 120 120 130 150 170 190 210 240 110 140 170 210 240 270 
751 731 681 671 661 661 651 641 631 621 611 601 601 591 581 571 561 541 531 521 501 490 501 480 460 440 420 390 370 350 320 300 300 270 240 210 180 150 120 100 70 40 -20 -40 -50 -60 -70 -80 -90 -90 -100 -100 -180 -160 -150 -130 -120 -110 -90 -80 -70 -60 -10 -10 0 10 20 30 50 80 100 130 -10 20 60 90 120 160 
681 651 611 591 571 571 551 531 521 501 490 470 460 440 430 420 410 390 380 370 350 340 340 320 300 290 270 240 220 210 180 160 160 130 100 80 60 30 10 -10 -30 -60 -110 -130 -130 -140 -140 -150 -150 -150 -160 -150 -220 -200 -190 -170 -160 -140 -120 -110 -100 -90 -40 -40 -30 -20 -10 10 30 60 80 110 -40 0 40 70 100 140 
601 581 531 511 490 480 450 430 410 390 380 360 320 310 300 280 270 250 240 230 210 200 190 180 160 140 120 100 90 70 50 30 20 0 -20 -40 -60 -80 -100 -110 -130 -140 -200 -210 -210 -210 -210 -210 -210 -210 -210 -200 -260 -240 -220 -200 -190 -170 -150 -140 -130 -120 -60 -60 -50 -40 -30 -20 0 30 60 90 -60 -20 20 50 90 130 
541 511 460 430 410 390 360 340 310 290 270 240 200 180 170 150 140 120 110 100 80 70 50 40 20 10 -10 -30 -40 -50 -70 -90 -100 -120 -140 -150 -160 -180 -190 -200 -220 -230 -270 -280 -280 -270 -270 -270 -270 -250 -250 -240 -290 -270 -250 -230 -210 -200 -180 -170 -150 -140 -80 -80 -70 -60 -50 -30 -10 20 40 70 -80 -40 0 40 80 120 
470 440 390 360 330 300 280 250 220 190 170 140 80 70 50 40 20 10 -10 -20 -40 -50 -70 -90 -100 -120 -130 -140 -160 -170 -190 -200 -220 -230 -240 -250 -260 -270 -280 -290 -290 -300 -340 -340 -340 -330 -320 -320 -310 -300 -290 -280 -320 -290 -270 -250 -240 -220 -200 -190 -170 -160 -90 -90 -80 -70 -60 -50 -30 0 30 60 -90 -60 -10 30 70 110 
370 330 310 260 220 180 140 100 60 20 -10 -50 -150 -170 -180 -200 -220 -230 -250 -260 -280 -290 -320 -330 -350 -360 -370 -380 -390 -400 -410 -420 -450 -450 -460 -460 -460 -470 -470 -470 -470 -460 -501 -490 -480 -470 -450 -440 -430 -410 -400 -380 -400 -380 -350 -330 -310 -290 -270 -260 -240 -230 -150 -150 -140 -130 -120 -100 -80 -50 -20 10 -150 -110 -60 -20 30 70 
330 290 250 200 160 120 90 50 10 -30 -60 -100 -190 -210 -230 -250 -270 -280 -300 -310 -330 -340 -380 -390 -400 -410 -420 -430 -440 -440 -450 -460 -490 -490 -501 -501 -490 -501 -501 -501 -490 -480 -521 -511 -490 -480 -460 -450 -440 -410 -400 -380 -390 -370 -340 -320 -300 -280 -260 -250 -230 -220 -140 -140 -130 -120 -110 -90 -70 -40 -10 -5 -140 -100 -50 -10 40 80 
300 250 200 150 120 80 40 0 -40 -70 -110 -140 -230 -250 -270 -290 -310 -320 -340 -350 -370 -380 -420 -430 -440 -450 -460 -470 -470 -480 -490 -501 -531 -531 -531 -531 -521 -531 -521 -521 -511 -501 -531 -521 -501 -490 -470 -450 -440 -410 -400 -380 -390 -360 -340 -320 -290 -270 -250 -240 -220 -210 -130 -130 -120 -110 -100 -80 -60 -30 0 5 -130 -90 -40 0 50 80 
270 230 160 120 80 40 0 -40 -70 -110 -140 -180 -260 -280 -300 -320 -340 -350 -370 -390 -400 -420 -460 -470 -480 -480 -490 -501 -511 -511 -521 -531 -561 -561 -561 -551 -551 -551 -541 -541 -531 -521 -551 -531 -511 -501 -480 -460 -440 -410 -400 -370 -380 -350 -330 -310 -280 -260 -240 -230 -210 -190 -110 -110 -100 -90 -80 -70 -50 -20 10 40 -110 -70 -30 10 60 90 
250 200 130 90 50 10 -20 -60 -100 -130 -170 -200 -290 -300 -320 -340 -360 -380 -400 -410 -430 -440 -480 -490 -501 -511 -521 -521 -531 -531 -541 -551 -591 -581 -581 -571 -571 -561 -561 -551 -541 -531 -561 -541 -521 -501 -480 -460 -440 -410 -400 -370 -370 -340 -320 -300 -270 -250 -230 -210 -200 -180 -100 -100 -90 -80 -70 -50 -40 -10 20 50 -100 -60 -20 20 70 110 
160 110 -10 -50 -80 -120 -150 -190 -220 -250 -290 -320 -380 -400 -430 -450 -470 -490 -511 -531 -541 -561 -621 -631 -631 -631 -641 -641 -641 -641 -651 -651 -681 -671 -661 -51 -641 -631 -621 -611 -591 -581 -601 -581 -551 -531 -511 -480 -460 -430 -410 -380 -370 -340 -320 -300 -270 -250 -230 -210 -200 -180 -100 -100 -90 -80 -70 -60 -40 -10 20 50 -100 -60 -20 20 60 100 
180 130 20 -20 -50 -90 -120 -160 -190 -220 -260 -290 -360 -380 -410 -430 -450 -460 -480 -501 -511 -531 -581 -591 -591 -601 -611 -611 -611 -621 -631 -631 -671 -661 -651 -641 -631 -621 -611 -601 -581 -571 -591 -571 -541 -521 -501 -470 -450 -420 -400 -370 -360 -330 -300 -280 -250 -230 -210 -190 -180 -160 -70 -70 -60 -50 -50 -30 -20 10 40 70 -70 -40 0 40 80 120 
190 140 40 0 -30 -70 -100 -140 -170 -200 -240 -270 -340 -360 -380 -400 -420 -430 -450 -470 -480 -501 -531 -551 -551 -561 -571 -581 -581 -591 -601 -601 -651 -641 -641 -631 -621 -611 -601 -581 -571 -561 -581 -561 -531 -511 -480 -450 -430 -400 -380 -350 -340 -310 -290 -260 -230 -210 -190 -170 -150 -130 -40 -40 -30 -30 -20 0 10 40 60 90 -40 -10 30 70 110 140 
200 150 60 20 -10 -50 -80 -110 -150 -170 -210 -240 -320 -330 -350 -360 -380 -400 -410 -430 -440 -460 -480 -501 -511 -521 -541 -551 -551 -561 -571 -581 -641 -631 -621 -611 -601 -591 -581 -571 -551 -541 -571 -541 -521 -490 -470 -440 -420 -390 -360 -330 -320 -290 -270 -240 -210 -190 -160 -140 -130 -110 -10 -10 0 0 10 30 40 60 90 120 -10 20 60 90 130 160 
200 150 70 30 0 -30 -60 -90 -120 -150 -180 -210 -290 -300 -310 -330 -350 -360 -370 -390 -410 -430 -420 -450 -460 -480 -501 -511 -521 -531 -541 -551 -631 -621 -611 -601 -591 -581 -571 -551 -541 -531 -561 -531 -511 -480 -460 -430 -400 -370 -350 -310 -310 -270 -250 -220 -190 -170 -140 -120 -100 -80 20 20 30 30 40 60 70 90 110 140 20 50 90 120 150 180 
250 200 160 110 70 30 -10 -50 -90 -120 -160 -190 -310 -320 -330 -340 -221 -370 -380 -400 -410 -430 -420 -440 -460 -470 -490 -501 -511 -521 -531 -541 -611 -601 -601 -591 -581 -571 -561 -541 -531 -521 -551 -521 -501 -470 -450 -420 -390 -370 -340 -310 -300 -270 -240 -210 -180 -160 -130 -110 -90 -70 30 30 40 40 50 70 80 100 120 150 30 60 100 130 170 200 
230 180 130 90 60 20 -10 -40 -70 -100 -130 -150 -250 -260 -270 -280 -290 -300 -320 -340 -350 -370 -340 -370 -390 -410 -440 -450 -470 -480 -490 -511 -601 -591 -591 -581 -571 -561 -551 -531 -521 -501 -541 -511 -480 -450 -430 -400 -370 -350 -320 -280 -280 -240 -210 -180 -150 -130 -100 -80 -50 -30 70 70 80 80 90 110 120 140 160 180 70 100 140 160 200 220 
200 160 100 70 40 20 -10 -30 -60 -70 -100 -120 -190 -190 -200 -210 -230 -240 -260 -280 -290 -310 -270 -300 -330 -360 -390 -410 -430 -450 -460 -480 -591 -581 -581 -571 -551 -541 -531 -511 -501 -490 -521 -490 -470 -440 -410 -380 -350 -320 -290 -260 -250 -220 -190 -150 -120 -100 -70 -40 -20 0 110 110 120 120 130 140 150 170 190 210 110 130 170 190 220 250 
180 150 60 40 30 10 -10 -20 -40 -50 -70 -90 -120 -130 -140 -150 -170 -180 -200 -220 -240 -260 -210 -250 -280 -310 -350 -370 -390 -420 -440 -460 -581 -571 -571 -561 -541 -531 -521 -501 -490 -470 -511 -480 -450 -420 -390 -360 -330 -300 -270 -240 -230 -200 -160 -130 -90 -70 -40 -20 10 30 140 140 150 150 160 170 180 200 210 240 140 160 190 210 240 260 
160 130 30 20 10 0 -10 -10 -30 -30 -40 -50 -60 -70 -90 -100 -110 -130 -150 -170 -200 -220 -170 -210 -240 -280 -320 -340 -370 -390 -410 -440 -581 -571 -561 -551 -541 -521 -511 -490 -480 -460 -490 -460 -430 -400 -370 -340 -310 -280 -250 -220 -210 -170 -140 -100 -70 -40 -20 10 30 60 170 170 170 180 180 200 210 220 240 260 170 190 220 230 260 280 
130 110 0 0 0 0 0 0 0 0 0 0 0 0 -10 -10 -20 -30 -50 -70 -90 -110 0 -50 -100 -150 -200 -240 -270 -310 -340 -370 -551 -541 -531 -521 -511 -501 -490 -470 -460 -440 -480 -450 -420 -390 -350 -320 -290 -250 -220 -180 -180 -140 -100 -60 -20 10 40 70 100 130 260 260 260 270 270 280 290 300 310 330 260 270 290 300 320 330 
110 100 -30 -20 -20 -10 0 0 10 10 10 10 60 50 30 30 10 -10 -30 -60 -80 -110 -20 -70 -120 -170 -220 -260 -290 -320 -350 -380 -561 -551 -541 -521 -511 -501 -480 -460 -450 -430 -460 -430 -400 -370 -330 -300 -270 -230 -200 -170 -160 -120 -80 -50 -10 20 50 70 100 130 250 250 250 260 260 270 280 290 300 320 250 260 280 290 310 330 
100 80 -60 -40 -30 -20 -10 0 10 10 20 20 100 80 60 50 30 0 -20 -50 -80 -110 -50 -100 -140 -190 -230 -270 -300 -330 -360 -390 -571 -551 -541 -521 -511 -501 -480 -460 -440 -420 -440 -410 -380 -350 -320 -290 -260 -220 -190 -150 -140 -100 -70 -40 0 30 50 80 110 130 250 250 250 260 260 270 280 290 300 320 250 260 280 290 310 320 
90 70 -80 -60 -40 -30 -10 0 10 10 20 20 120 100 70 50 30 0 -30 -60 -90 -120 -80 -130 -170 -210 -260 -290 -320 -350 -370 -400 -581 -561 -551 -531 -511 -490 -470 -450 -430 -410 -420 -390 -360 -330 -300 -270 -240 -200 -170 -140 -120 -90 -50 -20 10 30 60 80 110 130 240 240 240 250 250 260 270 280 290 310 240 260 280 290 310 320 
80 70 -90 -70 -50 -30 -20 -10 0 0 10 10 130 100 70 50 20 -10 -40 -70 -110 -140 -120 -170 -200 -240 -280 -320 -340 -370 -390 -410 -591 -571 -551 -531 -511 -490 -470 -450 -420 -400 -410 -380 -350 -320 -280 -250 -220 -190 -160 -130 -100 -70 -40 -10 20 40 70 90 110 140 240 240 240 250 250 260 270 280 290 310 240 250 270 280 300 320 
40 40 -180 -130 -90 -50 -10 20 40 60 80 90 330 290 240 200 160 110 70 20 -30 -70 -100 -150 -190 -230 -270 -310 -340 -360 -380 -400 -601 -581 -561 -531 -511 -490 -460 -440 -410 -390 -380 -350 -320 -290 -260 -230 -200 -170 -140 -110 -80 -50 -20 0 30 50 70 90 110 130 220 220 220 230 230 240 250 260 270 290 220 240 260 270 290 310 
40 40 -150 -110 -80 -50 -20 0 10 20 30 40 230 190 150 110 70 30 -10 -50 -100 -130 -170 -210 -250 -280 -310 -350 -370 -390 -400 -420 -601 -581 -561 -531 -511 -490 -460 -430 -400 -380 -370 -340 -310 -280 -250 -220 -190 -160 -130 -100 -70 -40 -10 10 40 60 80 100 120 140 230 230 230 240 240 250 260 260 270 290 230 240 260 270 290 310 
50 40 -110 -90 -70 -50 -30 -20 -20 -20 -10 -10 140 100 60 30 -10 -50 -80 -120 -160 -190 -230 -270 -300 -320 -350 -380 -400 -410 -430 -440 -601 -581 -561 -531 -501 -480 -450 -430 -400 -370 -360 -330 -300 -270 -240 -210 -180 -150 -120 -90 -50 -20 0 20 50 70 90 110 130 150 230 230 230 240 240 250 260 270 280 300 230 250 270 280 300 310 
50 40 -80 -70 -60 -50 -40 -40 -40 -50 -50 -50 50 20 -10 -50 -80 -110 -140 -180 -220 -250 -280 -320 -340 -360 -390 -410 -430 -440 -440 -450 -601 -581 -551 -531 -501 -480 -450 -420 -390 -370 -350 -320 -290 -260 -230 -200 -170 -140 -110 -80 -40 -10 10 30 60 80 100 120 140 150 240 240 240 250 250 260 270 270 280 300 240 250 270 280 300 320 
60 50 -50 -50 -50 -50 -50 -50 -60 -70 -80 -90 -20 -50 -80 -110 -140 -170 -200 -230 -270 -290 -330 -360 -380 -400 -420 -440 -450 -450 -460 -470 -601 -581 -551 -521 -501 -470 -440 -410 -390 -360 -340 -310 -280 -250 -220 -190 -160 -130 -100 -70 -30 0 20 40 70 90 110 130 140 160 240 240 240 250 250 260 270 280 290 300 240 260 280 290 300 320 
60 40 0 -20 -40 -60 -80 -100 -120 -150 -170 -190 -200 -220 -250 -270 -300 -320 -340 -370 -390 -410 -450 -470 -480 -490 -501 -511 -511 -511 -511 -511 -621 -591 -561 -531 -501 -470 -440 -410 -380 -350 -330 -300 -270 -240 -200 -170 -140 -110 -80 -50 -10 20 40 60 80 100 120 140 160 170 250 250 250 260 260 270 280 280 290 310 250 260 280 290 310 320 
70 50 20 -10 -30 -50 -70 -90 -120 -150 -170 -190 -210 -230 -260 -280 -310 -330 -350 -370 -390 -410 -460 -470 -480 -490 -501 -511 -511 -511 -501 -501 -611 -581 -551 -521 -490 -460 -430 -400 -370 -340 -330 -300 -270 -240 -200 -170 -140 -110 -80 -50 -10 20 40 60 80 100 120 140 160 170 250 250 250 260 260 270 280 280 290 310 250 260 280 290 310 320 
80 60 30 10 -20 -40 -60 -90 -110 -140 -160 -190 -210 -230 -260 -280 -310 -330 -350 -370 -390 -410 -460 -470 -480 -490 -490 -501 -501 -501 -501 -490 -591 -561 -531 -511 -480 -450 -420 -390 -370 -340 -320 -290 -260 -230 -200 -170 -140 -110 -80 -50 -10 20 40 60 90 110 130 150 160 180 260 260 260 270 270 270 280 290 300 310 260 270 290 300 310 320 
90 70 50 20 -10 -30 -50 -80 -100 -130 -160 -180 -210 -230 -260 -280 -310 -320 -340 -370 -390 -400 -450 -470 -470 -480 -490 -490 -490 -490 -490 -480 -571 -551 -521 -501 -470 -440 -410 -380 -360 -330 -320 -290 -260 -230 -190 -160 -130 -100 -70 -40 0 30 50 70 90 110 130 150 170 180 260 260 260 270 270 280 290 290 300 320 260 270 290 300 320 330 
100 80 60 40 10 -20 -40 -70 -90 -120 -140 -170 -200 -220 -250 -270 -300 -310 -330 -360 -380 -390 -450 -460 -470 -470 -470 -480 -480 -480 -480 -470 -551 -531 -501 -480 -450 -430 -400 -370 -350 -320 -320 -290 -260 -230 -190 -160 -130 -100 -70 -40 0 30 50 70 90 110 130 150 170 180 260 260 260 270 270 280 290 290 300 320 260 270 290 300 320 330 
100 80 80 50 10 -20 -50 -80 -110 -140 -170 -200 -260 -280 -300 -330 -350 -360 -380 -400 -420 -430 -490 -501 -501 -501 -501 -501 -501 -501 -490 -480 -551 -531 -501 -480 -450 -430 -400 -370 -350 -320 -310 -280 -250 -220 -190 -160 -130 -100 -70 -40 0 30 50 70 100 120 140 160 170 190 270 270 270 280 280 280 290 300 310 320 270 280 300 310 320 330 
120 100 90 60 30 0 -30 -50 -80 -110 -140 -170 -220 -240 -260 -290 -310 -320 -340 -360 -380 -400 -460 -470 -470 -470 -470 -470 -470 -470 -470 -460 -531 -511 -480 -460 -430 -410 -390 -360 -340 -310 -310 -280 -250 -220 -190 -160 -130 -100 -70 -40 0 30 50 70 100 120 140 160 170 190 270 270 270 280 280 280 290 300 310 320 270 280 300 310 320 330 
130 110 100 80 50 20 0 -30 -60 -80 -110 -140 -170 -200 -220 -250 -270 -290 -310 -330 -350 -360 -420 -430 -440 -440 -440 -450 -450 -450 -440 -440 -501 -490 -460 -440 -420 -400 -370 -350 -330 -310 -310 -280 -250 -220 -190 -160 -130 -100 -70 -40 0 30 50 70 100 120 140 160 170 190 270 270 270 280 280 280 290 300 310 320 270 280 300 310 320 330 
150 130 120 90 60 40 20 -10 -30 -60 -80 -110 -140 -160 -180 -210 -240 -250 -270 -300 -320 -330 -400 -410 -410 -420 -420 -420 -430 -430 -420 -420 -480 -470 -440 -430 -400 -390 -360 -340 -320 -300 -300 -270 -240 -210 -180 -150 -120 -100 -70 -40 0 30 50 70 100 120 140 160 170 190 270 270 270 280 280 280 290 300 310 320 270 280 300 310 320 330 
170 150 130 110 80 60 40 20 -10 -30 -60 -90 -100 -130 -150 -180 -200 -220 -240 -270 -290 -310 -370 -380 -390 -390 -390 -400 -410 -410 -400 -400 -460 -450 -430 -410 -390 -380 -350 -330 -310 -290 -300 -270 -240 -210 -180 -150 -120 -100 -70 -40 0 30 50 70 100 120 140 160 170 190 270 270 270 280 280 280 290 300 310 320 270 280 300 310 320 330 
190 170 140 120 100 90 70 50 30 10 -10 -40 -30 -60 -80 -110 -140 -160 -180 -210 -230 -250 -310 -320 -330 -340 -340 -350 -360 -360 -360 -360 -420 -410 -390 -380 -360 -350 -330 -310 -300 -280 -300 -270 -240 -210 -180 -150 -120 -90 -60 -40 0 30 50 70 100 120 140 160 170 190 270 270 270 280 280 290 290 300 310 320 270 280 300 310 320 330 
200 180 150 130 110 100 80 60 40 20 0 -30 -20 -50 -70 -100 -130 -150 -170 -200 -220 -240 -310 -320 -330 -340 -340 -350 -350 -360 -360 -360 -420 -410 -390 -380 -360 -350 -330 -310 -300 -280 -300 -270 -240 -210 -180 -150 -120 -90 -60 -40 0 30 50 70 100 120 140 160 170 190 270 270 270 280 280 290 290 300 310 320 270 280 300 310 320 330 
200 190 160 140 120 110 90 70 50 30 10 -20 -10 -40 -60 -90 -120 -140 -170 -200 -220 -240 -300 -310 -320 -330 -340 -350 -350 -350 -350 -350 -410 -400 -390 -370 -360 -340 -330 -310 -290 -280 -300 -270 -240 -210 -180 -150 -120 -90 -60 -40 0 30 50 70 100 120 140 160 170 190 270 270 270 280 280 290 290 300 310 320 270 280 300 310 320 330 
210 190 170 150 130 120 100 80 50 30 10 -20 -10 -40 -60 -90 -120 -140 -170 -200 -220 -240 -300 -310 -320 -330 -340 -350 -350 -350 -350 -350 -410 -400 -390 -370 -360 -340 -330 -310 -290 -270 -290 -260 -230 -210 -180 -150 -120 -100 -70 -40 -10 20 40 60 90 110 130 150 160 180 260 260 260 270 270 280 290 300 310 330 260 280 290 310 320 340 
200 190 170 150 130 110 90 70 50 30 10 -20 -10 -40 -60 -90 -120 -150 -170 -200 -220 -240 -310 -320 -330 -330 -340 -350 -350 -360 -360 -350 -410 -400 -390 -370 -360 -340 -330 -310 -290 -270 -290 -260 -230 -210 -180 -150 -120 -100 -70 -40 -10 20 40 60 90 110 130 150 160 180 260 260 260 270 270 280 290 300 310 330 260 280 290 310 320 340 
240 230 220 200 180 170 150 130 100 80 60 30 50 20 -10 -40 -70 -100 -130 -160 -180 -200 -280 -290 -300 -310 -320 -330 -330 -340 -340 -340 -400 -390 -380 -360 -350 -330 -320 -300 -280 -270 -290 -260 -230 -210 -180 -150 -120 -100 -70 -40 -10 20 40 60 90 110 130 150 160 180 260 260 260 270 270 280 290 300 310 330 260 280 290 310 320 340 
220 210 190 170 150 140 120 100 70 50 30 0 10 -20 -50 -70 -100 -130 -160 -190 -200 -220 -300 -310 -320 -320 -330 -340 -340 -350 -350 -350 -400 -390 -380 -360 -350 -330 -320 -300 -280 -270 -290 -260 -230 -210 -180 -150 -120 -100 -70 -40 -10 20 40 60 90 110 130 150 160 180 260 260 260 270 270 280 290 300 310 330 260 280 290 310 320 340 
200 180 160 140 120 100 80 60 40 10 -10 -30 -30 -50 -80 -110 -130 -160 -180 -210 -230 -240 -310 -320 -330 -340 -340 -350 -350 -360 -360 -350 -410 -390 -380 -360 -350 -330 -320 -300 -280 -270 -280 -260 -230 -210 -180 -150 -120 -100 -70 -40 -20 10 30 60 80 100 120 140 160 180 260 260 260 270 270 280 290 300 310 330 260 280 290 310 320 340 
170 160 130 110 90 70 50 30 10 -20 -40 -60 -70 -90 -110 -140 -160 -180 -210 -230 -250 -260 -330 -330 -340 -350 -350 -360 -360 -360 -360 -360 -410 -390 -380 -360 -350 -330 -320 -300 -280 -270 -280 -250 -230 -200 -180 -150 -120 -100 -70 -50 -20 10 30 50 80 100 120 140 150 170 250 250 250 260 270 270 280 300 310 330 250 270 290 310 320 340 
150 140 100 80 60 40 20 0 -20 -50 -70 -90 -100 -120 -140 -160 -190 -210 -230 -250 -270 -280 -340 -340 -350 -350 -360 -360 -360 -360 -360 -360 -400 -390 -380 -360 -350 -330 -320 -300 -280 -270 -280 -250 -230 -200 -180 -150 -120 -100 -70 -50 -30 0 30 50 70 100 120 140 150 170 250 250 250 260 270 270 280 300 310 330 250 270 290 310 320 340 
130 110 70 50 30 0 -20 -40 -60 -90 -110 -130 -150 -170 -190 -210 -230 -250 -270 -290 -310 -320 -380 -380 -390 -390 -390 -390 -390 -390 -390 -380 -430 -410 -400 -380 -360 -350 -330 -310 -290 -270 -270 -250 -220 -200 -170 -150 -120 -100 -70 -50 -30 0 20 50 70 90 110 130 150 170 250 250 250 260 270 270 280 300 310 330 250 270 290 310 330 350 
110 90 50 30 0 -20 -40 -60 -80 -110 -130 -150 -180 -190 -210 -230 -250 -260 -280 -300 -310 -320 -370 -370 -380 -380 -380 -380 -380 -380 -380 -370 -410 -390 -380 -370 -350 -340 -320 -300 -280 -37 -270 -250 -220 -200 -170 -150 -120 -100 -70 -50 -30 0 20 50 70 90 110 130 150 170 250 250 250 260 270 270 280 300 310 330 250 270 290 310 330 350 
90 70 20 0 -20 -50 -70 -90 -110 -130 -150 -170 -200 -220 -230 -250 -260 -280 -290 -300 -320 -320 -370 -370 -380 -370 -370 -370 -370 -370 -370 -360 -390 -380 -370 -350 -340 -330 -310 -290 -280 -260 -270 -250 -220 -200 -170 -150 -120 -100 -70 -50 -40 -10 20 40 60 90 110 130 150 160 250 250 250 260 270 270 280 300 310 330 250 270 290 300 320 340 
80 50 0 -20 -40 -70 -90 -110 -130 -150 -170 -190 -230 -240 -250 -260 -270 -290 -300 -310 -320 -320 -360 -360 -370 -360 -360 -360 -360 -360 -360 -350 -380 -360 -360 -340 -330 -320 -300 -290 -270 -250 -260 -240 -220 -190 -170 -150 -120 -100 -70 -50 -40 -10 20 40 60 90 110 130 150 160 250 250 250 260 270 270 280 300 310 330 250 270 290 300 320 340 
60 40 -10 -30 -60 -80 -100 -120 -140 -160 -180 -200 -250 -250 -270 -270 -290 -290 -300 -310 -320 -320 -360 -360 -360 -360 -360 -350 -350 -350 -350 -340 -360 -350 -350 -330 -320 -310 -290 -280 -260 -240 -260 -240 -220 -190 -170 -150 -120 -100 -70 -50 -30 0 20 50 70 90 110 130 150 170 250 250 250 260 270 270 280 300 310 330 250 270 290 300 320 340 
30 0 -60 -80 -110 -130 -150 -170 -190 -200 -220 -240 -300 -300 -310 -310 -320 -320 -320 -330 -330 -330 -350 -350 -350 -340 -340 -340 -330 -330 -330 -320 -330 -320 -320 -310 -300 -290 -280 -270 -260 -240 -270 -250 -230 -200 -180 -160 -130 -110 -80 -60 -50 -20 10 30 50 80 100 120 140 150 240 240 240 250 260 260 280 290 300 320 240 260 280 290 310 330 
30 0 -60 -80 -110 -130 -150 -170 -190 -200 -220 -240 -300 -300 -310 -310 -320 -320 -320 -330 -330 -330 -350 -350 -350 -340 -340 -340 -330 -320 -320 -310 -330 -320 -310 -300 -290 -280 -270 -260 -250 -230 -260 -240 -220 -190 -170 -150 -120 -100 -70 -50 -40 -10 20 40 60 90 110 130 150 160 250 250 250 260 270 270 290 300 310 330 250 270 290 300 320 340 
30 0 -60 -80 -100 -120 -140 -160 -180 -200 -210 -230 -290 -290 -300 -300 -310 -320 -320 -320 -320 -320 -340 -340 -340 -330 -330 -330 -320 -320 -320 -310 -320 -310 -300 -290 -280 -270 -260 -250 -240 -220 -240 -220 -200 -170 -150 -130 -100 -80 -60 -30 -30 0 30 50 70 100 120 140 160 170 260 260 260 270 280 280 290 310 320 340 260 280 290 310 330 350 
30 0 -50 -70 -100 -120 -140 -160 -180 -190 -210 -230 -290 -290 -300 -300 -300 -310 -310 -320 -320 -320 -340 -340 -340 -330 -330 -320 -310 -310 -310 -300 -310 -300 -290 -280 -270 -260 -240 -230 -220 -200 -220 -200 -180 -160 -140 -120 -90 -70 -40 -20 -20 10 40 60 80 110 130 150 160 180 260 260 260 270 280 280 300 310 320 340 260 280 300 310 340 360 
40 10 -50 -70 -90 -110 -130 -150 -170 -190 -200 -220 -270 -280 -290 -290 -290 -300 -300 -310 -310 -310 -340 -330 -330 -320 -320 -310 -300 -300 -290 -280 -290 -280 -270 -260 -250 -240 -230 -220 -200 -190 -200 -180 -160 -140 -120 -100 -70 -50 -30 -10 0 30 50 70 90 120 140 160 170 190 270 270 270 280 290 290 300 320 330 350 270 290 310 320 350 370 
20 -10 -70 -90 -110 -130 -150 -170 -190 -210 -220 -240 -300 -300 -310 -310 -310 -320 -320 -320 -320 -320 -340 -340 -340 -330 -330 -320 -320 -310 -310 -300 -320 -310 -300 -280 -270 -260 -240 -230 -210 -200 -200 -180 -160 -140 -120 -100 -70 -50 -30 0 0 30 50 80 100 120 140 160 180 200 280 280 280 290 300 300 310 330 340 360 280 300 310 330 350 370 
40 10 -40 -60 -80 -100 -120 -140 -160 -180 -190 -210 -270 -270 -280 -280 -290 -300 -300 -300 -300 -300 -330 -330 -320 -310 -310 -300 -290 -280 -280 -270 -280 -270 -260 -240 -230 -220 -210 -200 -180 -170 -170 -150 -130 -110 -90 -70 -50 -30 -10 20 20 50 70 100 110 130 150 170 190 210 280 280 280 290 300 310 320 340 350 370 280 310 320 340 360 380 
60 30 -20 -40 -60 -80 -100 -120 -140 -160 -170 -190 -240 -240 -250 -260 -260 -270 -270 -280 -280 -280 -320 -310 -310 -290 -290 -280 -270 -260 -250 -240 -240 -230 -220 -210 -200 -190 -170 -160 -150 -130 -140 -120 -100 -80 -70 -50 -20 0 10 40 40 70 90 110 130 150 170 190 200 220 290 290 290 300 310 320 330 350 360 380 290 310 330 350 380 400 
70 50 0 -10 -30 -50 -70 -90 -110 -130 -140 -160 -210 -220 -230 -230 -240 -250 -250 -250 -250 -250 -310 -300 -290 -270 -270 -250 -250 -240 -230 -220 -210 -200 -190 -170 -170 -160 -140 -130 -120 -100 -110 -90 -80 -60 -40 -20 0 20 40 60 60 90 110 130 150 170 180 200 220 230 300 300 300 310 320 330 340 360 370 390 300 320 340 360 390 410 
90 70 30 10 -10 -30 -50 -70 -90 -110 -120 -140 -180 -190 -200 -200 -210 -220 -220 -230 -230 -230 -290 -280 -270 -250 -250 -230 -220 -210 -200 -190 -180 -160 -160 -140 -140 -130 -110 -100 -90 -80 -80 -60 -50 -30 -10 0 20 40 60 80 90 110 130 150 170 190 200 220 230 240 310 310 310 320 330 340 350 370 380 400 310 340 350 380 400 420 
110 90 60 40 20 0 -20 -40 -60 -80 -90 -110 -140 -160 -170 -180 -190 -200 -200 -210 -210 -210 -300 -280 -260 -240 -230 -210 -190 -180 -160 -150 -100 -90 -90 -80 -80 -70 -60 -50 -40 -30 -50 -30 -20 0 10 30 40 60 80 100 100 120 140 160 170 190 200 220 230 240 300 300 300 310 320 330 340 360 370 390 300 330 350 380 410 430 
120 100 80 60 40 20 0 -20 -40 -60 -70 -90 -110 -130 -140 -150 -160 -170 -170 -180 -180 -190 -270 -250 -240 -220 -210 -190 -170 -160 -140 -130 -90 -80 -80 -70 -70 -60 -40 -30 -20 -10 -20 0 10 30 40 60 70 90 110 130 130 150 170 190 200 220 230 240 250 260 320 320 320 330 340 350 360 380 390 410 320 350 370 400 430 450 
140 120 100 80 60 50 30 10 -10 -30 -40 -60 -80 -100 -110 -120 -130 -140 -150 -160 -160 -160 -240 -220 -210 -190 -180 -170 -150 -140 -130 -120 -90 -70 -70 -60 -50 -40 -30 -20 0 10 0 20 30 50 60 80 100 110 130 150 160 180 190 210 230 240 250 270 280 290 350 350 350 360 370 380 390 410 420 440 350 370 400 420 450 470 
160 140 120 100 80 70 50 30 10 -10 -20 -40 -60 -70 -90 -100 -110 -120 -120 -130 -130 -140 -210 -200 -190 -170 -160 -150 -130 -120 -110 -100 -80 -60 -60 -40 -40 -20 -10 0 20 30 30 50 60 80 90 110 120 140 160 180 180 200 220 240 250 270 280 290 300 320 370 370 370 380 390 400 410 430 450 470 370 400 420 450 480 501 
180 160 140 130 110 90 70 60 40 20 10 -10 -30 -40 -60 -70 -80 -90 -90 -100 -110 -110 -180 -170 -160 -150 -140 -120 -110 -100 -80 -70 -60 -50 -40 -30 -20 0 10 20 40 50 50 70 80 100 120 130 150 170 180 200 210 230 250 260 280 290 310 320 330 340 400 400 400 410 420 430 440 460 470 490 400 420 450 470 501 521 
180 160 150 140 120 110 90 80 60 40 30 10 0 -10 -30 -40 -50 -60 -70 -80 -80 -90 -150 -140 -140 -130 -120 -110 -100 -90 -80 -70 -80 -60 -50 -30 -20 0 20 30 50 70 80 100 110 130 150 160 180 200 210 230 250 270 280 290 310 320 330 340 350 360 410 410 410 420 430 440 450 470 490 511 410 430 460 480 511 531 
210 190 180 170 150 140 120 110 90 70 60 40 20 10 0 -10 -20 -30 -40 -50 -50 -60 -120 -110 -110 -100 -90 -80 -70 -60 -50 -40 -50 -30 -20 0 10 30 50 60 80 90 110 120 140 150 170 180 200 220 230 250 270 290 300 310 330 350 360 370 380 390 450 450 450 460 470 480 490 501 521 541 450 470 501 521 541 561 
230 210 210 190 170 160 140 130 110 90 80 60 50 40 20 10 0 -10 -20 -30 -30 -40 -90 -80 -80 -70 -60 -50 -40 -30 -20 -10 -30 -10 10 20 40 50 70 80 100 120 130 150 160 180 200 210 230 250 260 280 290 310 320 340 360 370 390 400 410 420 480 480 480 490 501 511 521 531 551 571 480 501 531 551 571 591 
260 240 240 220 200 190 170 160 140 120 110 90 70 60 40 30 20 10 10 0 -10 -10 -70 -60 -60 -50 -40 -30 -20 -10 0 10 0 10 30 40 60 80 90 110 120 140 150 170 190 200 220 230 250 270 290 310 310 330 350 360 390 400 410 430 440 450 511 511 511 521 531 541 551 561 581 601 511 531 561 581 601 621 
290 270 260 250 230 220 200 180 170 150 140 120 90 80 70 60 50 40 30 20 20 10 -40 -30 -30 -20 -10 0 0 10 20 30 20 30 50 70 80 100 110 130 150 160 180 190 210 230 240 260 280 290 310 330 340 360 380 390 410 430 440 460 470 480 541 541 541 551 561 571 581 591 611 631 541 561 591 611 631 651 
310 290 300 280 260 250 230 210 200 180 170 150 120 110 100 90 80 70 70 60 50 50 0 10 10 20 30 40 50 60 70 80 70 80 100 110 130 140 150 170 180 190 210 220 240 250 260 280 300 310 330 350 330 360 380 400 430 450 470 490 501 521 601 601 601 611 611 621 631 641 661 671 601 621 641 661 681 701 
340 320 320 300 280 270 250 230 220 200 190 170 140 130 120 110 100 90 90 80 70 60 20 20 20 30 40 50 60 70 80 90 70 90 110 120 140 150 160 180 200 210 230 240 260 270 290 310 330 340 360 380 370 400 420 440 460 480 501 521 531 541 621 621 621 631 631 641 651 661 671 691 621 641 661 681 701 721 
360 340 340 320 300 290 270 250 240 220 210 190 160 150 130 120 110 100 100 90 80 80 30 40 40 50 50 60 70 80 90 100 80 90 110 120 150 160 180 200 210 230 240 260 280 290 310 330 350 360 390 410 410 440 450 470 490 511 521 541 551 561 631 631 631 641 641 651 661 671 691 701 631 651 671 691 711 731 
380 360 360 340 320 300 290 270 250 230 220 200 170 160 150 140 130 120 110 100 90 90 40 50 50 60 60 70 80 90 100 110 80 100 120 130 160 170 190 210 230 240 260 280 300 310 330 350 370 390 410 430 450 470 480 501 521 531 551 561 571 581 641 641 641 651 651 661 671 681 701 711 641 661 681 701 721 741 
400 380 370 350 330 310 300 280 260 240 230 210 180 170 160 150 140 130 120 110 100 90 50 50 50 60 70 80 80 90 100 110 80 100 120 140 160 180 190 210 240 250 270 290 310 330 350 370 390 410 430 450 480 490 511 521 541 551 571 581 591 601 651 651 651 661 661 671 681 691 701 721 651 671 691 711 731 751 











